ply
        format ascii 1.0
        element vertex 20818
        property float x
        property float y
        property float z
        property uchar red
        property uchar green
        property uchar blue
        end_header
1.032258 -1.169355 -3.225806 27 32 61
1.048387 -1.169355 -3.225806 27 32 58
1.064516 -1.169355 -3.225806 28 33 57
1.080645 -1.169355 -3.225806 31 36 58
1.096774 -1.169355 -3.225806 35 38 62
1.112903 -1.169355 -3.225806 36 37 63
1.129032 -1.169355 -3.225806 33 34 63
1.145161 -1.169355 -3.225806 30 33 62
1.161290 -1.169355 -3.225806 30 34 62
1.177419 -1.169355 -3.225806 31 34 61
1.193548 -1.169355 -3.225806 32 33 59
1.209677 -1.169355 -3.225806 31 32 59
1.225806 -1.169355 -3.225806 30 32 58
1.241935 -1.169355 -3.225806 30 34 57
1.258065 -1.169355 -3.225806 31 35 56
1.274194 -1.169355 -3.225806 30 35 55
1.290323 -1.169355 -3.225806 29 34 55
1.306452 -1.169355 -3.225806 29 33 58
1.322581 -1.169355 -3.225806 31 34 61
1.338710 -1.169355 -3.225806 35 35 62
-84.000000 72.500000 200.000000 37 36 63
-85.000000 72.500000 200.000000 33 33 61
-86.000000 72.500000 200.000000 34 35 62
-87.000000 72.500000 200.000000 35 36 61
-88.000000 72.500000 200.000000 32 32 56
-89.000000 72.500000 200.000000 32 31 56
-90.000000 72.500000 200.000000 33 32 58
-91.000000 72.500000 200.000000 31 31 57
-92.000000 72.500000 200.000000 33 34 59
-93.000000 72.500000 200.000000 33 34 60
-94.000000 72.500000 200.000000 31 31 59
-95.000000 72.500000 200.000000 32 32 60
-96.000000 72.500000 200.000000 30 30 58
-97.000000 72.500000 200.000000 26 27 53
-98.000000 72.500000 200.000000 30 31 56
-99.000000 72.500000 200.000000 31 32 58
-100.000000 72.500000 200.000000 29 30 57
-101.000000 72.500000 200.000000 28 30 58
-102.000000 72.500000 200.000000 28 32 59
-103.000000 72.500000 200.000000 28 32 57
-104.000000 72.500000 200.000000 30 34 57
-105.000000 72.500000 200.000000 29 31 55
-106.000000 72.500000 200.000000 31 32 58
-107.000000 72.500000 200.000000 28 30 55
-108.000000 72.500000 200.000000 28 29 54
-109.000000 72.500000 200.000000 31 32 58
-110.000000 72.500000 200.000000 28 30 56
-111.000000 72.500000 200.000000 26 31 56
-112.000000 72.500000 200.000000 25 30 56
-113.000000 72.500000 200.000000 25 28 55
-114.000000 72.500000 200.000000 30 31 59
-115.000000 72.500000 200.000000 32 33 61
-116.000000 72.500000 200.000000 35 35 64
-117.000000 72.500000 200.000000 36 34 65
-118.000000 72.500000 200.000000 28 26 57
-119.000000 72.500000 200.000000 26 26 58
-120.000000 72.500000 200.000000 27 29 59
-121.000000 72.500000 200.000000 28 30 59
-122.000000 72.500000 200.000000 30 31 58
-123.000000 72.500000 200.000000 31 33 56
-0.862486 -1.293729 -3.520352 223 212 209
-0.843956 -1.292308 -3.516484 221 211 208
-0.825467 -1.290889 -3.512624 220 211 208
-0.807903 -1.290889 -3.512624 220 212 208
-0.790340 -1.290889 -3.512624 220 212 208
-0.721030 -1.261803 -3.433476 224 212 210
-0.703108 -1.260450 -3.429796 221 211 209
-0.685959 -1.260450 -3.429796 221 212 210
-0.621359 -1.268608 -3.451996 218 211 208
-0.604099 -1.268608 -3.451996 200 197 198
-0.584946 -1.264516 -3.440860 123 124 132
-0.561702 -1.251064 -3.404255 53 57 74
-0.541226 -1.243129 -3.382664 35 40 65
-0.520462 -1.233998 -3.357817 44 49 76
-0.501567 -1.228840 -3.343783 49 55 81
-0.483837 -1.226277 -3.336809 38 44 69
-0.467641 -1.227557 -3.340292 31 38 62
-0.451411 -1.228840 -3.343783 31 37 60
-0.894624 -2.529032 -6.881721 37 43 66
-0.863931 -2.539957 -6.911447 38 43 66
-0.840263 -2.573304 -7.002188 36 40 64
-0.805252 -2.573304 -7.002188 33 36 61
-0.785714 -2.625000 -7.142857 28 31 56
-0.740088 -2.590308 -7.048458 28 34 57
-0.707965 -2.601770 -7.079646 31 38 60
-0.683146 -2.642697 -7.191011 33 40 61
-0.660550 -2.697248 -7.339449 30 37 55
-0.516129 -2.709677 -7.373272 25 30 48
-0.479263 -2.709677 -7.373272 28 32 55
-0.208696 -1.704348 -4.637681 33 38 64
-0.307692 -4.523077 -12.307693 31 38 62
0.017372 -1.276873 -3.474484 35 39 64
0.034595 -1.271351 -3.459460 38 42 69
0.074189 -1.817620 -4.945904 41 45 74
0.099379 -1.826087 -4.968944 41 46 76
0.124031 -1.823256 -4.961240 39 45 75
0.148377 -1.817620 -4.945904 34 41 71
0.172840 -1.814815 -4.938272 33 40 70
0.197836 -1.817620 -4.945904 32 41 69
0.225705 -1.843260 -5.015674 30 39 66
0.253566 -1.863708 -5.071315 29 39 64
0.278922 -1.863708 -5.071315 32 40 66
0.304279 -1.863708 -5.071315 37 44 71
0.328076 -1.854890 -5.047318 37 44 72
0.353312 -1.854890 -5.047318 39 47 75
0.379147 -1.857820 -5.055292 41 48 77
0.405063 -1.860759 -5.063291 38 46 74
0.430380 -1.860759 -5.063291 34 42 69
0.690399 -1.268608 -3.451996 38 39 63
0.661290 -1.185484 -3.225806 37 37 63
0.677419 -1.185484 -3.225806 34 33 61
0.693548 -1.185484 -3.225806 32 32 60
0.709677 -1.185484 -3.225806 34 35 63
0.725806 -1.185484 -3.225806 35 38 65
0.741935 -1.185484 -3.225806 33 36 63
0.758065 -1.185484 -3.225806 33 37 64
0.774194 -1.185484 -3.225806 34 38 66
0.790323 -1.185484 -3.225806 33 35 66
0.806452 -1.185484 -3.225806 34 35 67
0.822581 -1.185484 -3.225806 38 40 66
0.847251 -1.197556 -3.258656 36 39 63
0.865306 -1.200000 -3.265306 31 35 59
0.879837 -1.197556 -3.258656 28 32 57
0.887097 -1.185484 -3.225806 29 34 60
0.903226 -1.185484 -3.225806 30 37 62
0.919355 -1.185484 -3.225806 28 35 60
0.935484 -1.185484 -3.225806 28 35 60
0.951613 -1.185484 -3.225806 30 37 59
0.967742 -1.185484 -3.225806 32 38 61
0.983871 -1.185484 -3.225806 30 36 61
1.000000 -1.185484 -3.225806 30 36 63
1.016129 -1.185484 -3.225806 30 37 64
1.032258 -1.185484 -3.225806 28 35 61
1.048387 -1.185484 -3.225806 26 33 58
1.064516 -1.185484 -3.225806 26 33 56
1.080645 -1.185484 -3.225806 30 36 59
1.096774 -1.185484 -3.225806 33 37 62
1.112903 -1.185484 -3.225806 34 35 62
1.129032 -1.185484 -3.225806 33 34 63
1.145161 -1.185484 -3.225806 32 33 63
1.161290 -1.185484 -3.225806 32 35 64
1.177419 -1.185484 -3.225806 32 35 63
1.193548 -1.185484 -3.225806 31 32 60
1.209677 -1.185484 -3.225806 29 31 59
1.225806 -1.185484 -3.225806 29 32 59
1.241935 -1.185484 -3.225806 29 34 58
1.258065 -1.185484 -3.225806 29 35 56
1.274194 -1.185484 -3.225806 28 34 55
1.290323 -1.185484 -3.225806 27 33 55
1.306452 -1.185484 -3.225806 28 33 58
1.322581 -1.185484 -3.225806 30 34 61
1.338710 -1.185484 -3.225806 33 35 62
-84.000000 73.500000 200.000000 35 36 63
-88.000000 73.500000 200.000000 34 34 58
-89.000000 73.500000 200.000000 34 33 57
-90.000000 73.500000 200.000000 34 33 58
-91.000000 73.500000 200.000000 33 33 58
-92.000000 73.500000 200.000000 32 33 57
-93.000000 73.500000 200.000000 31 31 57
-94.000000 73.500000 200.000000 32 31 60
-95.000000 73.500000 200.000000 30 29 59
-96.000000 73.500000 200.000000 29 29 58
-97.000000 73.500000 200.000000 27 28 56
-98.000000 73.500000 200.000000 30 31 57
-99.000000 73.500000 200.000000 32 34 59
-100.000000 73.500000 200.000000 29 31 58
-101.000000 73.500000 200.000000 27 29 58
-102.000000 73.500000 200.000000 29 32 60
-103.000000 73.500000 200.000000 29 33 58
-104.000000 73.500000 200.000000 29 33 57
-105.000000 73.500000 200.000000 26 30 54
-106.000000 73.500000 200.000000 29 32 58
-107.000000 73.500000 200.000000 29 32 58
-108.000000 73.500000 200.000000 28 30 55
-109.000000 73.500000 200.000000 31 31 57
-110.000000 73.500000 200.000000 30 29 56
-111.000000 73.500000 200.000000 28 30 56
-112.000000 73.500000 200.000000 26 29 56
-113.000000 73.500000 200.000000 27 29 57
-114.000000 73.500000 200.000000 31 31 61
-115.000000 73.500000 200.000000 30 31 60
-116.000000 73.500000 200.000000 32 33 62
-117.000000 73.500000 200.000000 34 32 62
-118.000000 73.500000 200.000000 31 29 59
-119.000000 73.500000 200.000000 25 25 55
-120.000000 73.500000 200.000000 27 28 57
-121.000000 73.500000 200.000000 29 31 59
-122.000000 73.500000 200.000000 31 32 59
-123.000000 73.500000 200.000000 30 32 56
-1.052632 -1.307018 -3.508772 225 210 211
-0.862486 -1.311331 -3.520352 223 211 208
-0.844885 -1.311331 -3.520352 222 211 207
-0.827283 -1.311331 -3.520352 221 212 208
-0.808791 -1.309890 -3.516484 221 212 208
-0.705376 -1.281720 -3.440860 221 211 209
-0.716685 -1.334826 -3.583427 220 211 209
-0.680851 -1.334826 -3.583427 221 209 207
-0.662934 -1.334826 -3.583427 220 210 208
-0.642140 -1.328874 -3.567447 210 204 206
-0.624303 -1.328874 -3.567447 155 153 162
-0.605791 -1.327394 -3.563474 68 70 86
-0.586667 -1.324444 -3.555556 35 40 62
-0.544681 -1.268085 -3.404255 35 41 66
-0.527099 -1.266737 -3.400638 47 53 80
-0.503673 -1.250787 -3.357817 48 53 81
-0.484848 -1.245559 -3.343783 37 43 70
-0.468130 -1.245559 -3.343783 30 37 62
-0.935065 -2.580086 -6.926407 33 39 64
-0.906318 -2.596950 -6.971678 38 43 67
-0.875274 -2.608315 -7.002188 35 40 63
-0.857143 -2.660714 -7.142857 32 36 59
-0.821429 -2.660714 -7.142857 30 33 58
-0.789238 -2.672646 -7.174888 27 30 55
-0.755056 -2.678652 -7.191011 27 33 58
-0.719101 -2.678652 -7.191011 30 37 61
-0.683146 -2.678652 -7.191011 34 40 63
-0.657534 -2.721461 -7.305936 26 30 52
-0.628175 -2.752887 -7.390300 15 19 39
-0.595349 -2.772093 -7.441861 14 17 38
-0.555556 -2.759259 -7.407407 22 26 47
-0.514943 -2.740230 -7.356322 28 32 54
-0.477064 -2.733945 -7.339449 30 33 59
-0.440367 -2.733945 -7.339449 31 34 61
-0.405530 -2.746544 -7.373272 31 34 61
-0.234261 -1.745242 -4.685212 31 33 61
-0.210835 -1.745242 -4.685212 34 37 64
0.049612 -1.848062 -4.961240 39 44 73
0.074419 -1.848062 -4.961240 41 46 76
0.099225 -1.848062 -4.961240 39 43 73
0.123839 -1.845201 -4.953560 34 39 69
0.148148 -1.839506 -4.938272 31 37 67
0.172840 -1.839506 -4.938272 31 39 67
0.197836 -1.842349 -4.945904 30 38 65
0.229299 -1.898089 -5.095541 26 36 61
0.254777 -1.898089 -5.095541 27 38 62
0.280255 -1.898089 -5.095541 31 39 64
0.304762 -1.892063 -5.079365 36 42 68
0.329636 -1.889065 -5.071315 36 43 70
0.355556 -1.892063 -5.079365 40 46 75
0.380952 -1.892063 -5.079365 39 46 75
0.405705 -1.889065 -5.071315 38 44 74
0.431062 -1.889065 -5.071315 35 42 71
0.645161 -1.201613 -3.225806 35 37 61
0.661290 -1.201613 -3.225806 37 39 64
0.677419 -1.201613 -3.225806 37 38 66
0.693548 -1.201613 -3.225806 34 34 64
0.709677 -1.201613 -3.225806 33 34 63
0.725806 -1.201613 -3.225806 31 34 61
0.741935 -1.201613 -3.225806 31 36 61
0.758065 -1.201613 -3.225806 32 37 62
0.774194 -1.201613 -3.225806 34 38 63
0.790323 -1.201613 -3.225806 34 36 64
0.806452 -1.201613 -3.225806 34 35 64
0.822581 -1.201613 -3.225806 35 37 63
0.838710 -1.201613 -3.225806 34 36 61
0.854839 -1.201613 -3.225806 31 34 60
0.870968 -1.201613 -3.225806 30 33 60
0.887097 -1.201613 -3.225806 32 36 64
0.903226 -1.201613 -3.225806 34 39 66
0.919355 -1.201613 -3.225806 30 36 63
0.935484 -1.201613 -3.225806 27 33 60
0.951613 -1.201613 -3.225806 29 34 60
0.967742 -1.201613 -3.225806 33 37 64
0.983871 -1.201613 -3.225806 32 37 63
1.000000 -1.201613 -3.225806 32 37 63
1.016129 -1.201613 -3.225806 31 37 63
1.032258 -1.201613 -3.225806 28 34 59
1.048387 -1.201613 -3.225806 27 33 58
1.064516 -1.201613 -3.225806 27 33 58
1.080645 -1.201613 -3.225806 30 36 61
1.096774 -1.201613 -3.225806 32 36 63
1.112903 -1.201613 -3.225806 34 34 63
1.129032 -1.201613 -3.225806 33 33 64
1.145161 -1.201613 -3.225806 35 35 66
1.161290 -1.201613 -3.225806 33 35 65
1.177419 -1.201613 -3.225806 34 36 65
1.193548 -1.201613 -3.225806 33 33 62
1.209677 -1.201613 -3.225806 32 33 61
1.225806 -1.201613 -3.225806 31 34 61
1.241935 -1.201613 -3.225806 30 33 60
1.258065 -1.201613 -3.225806 29 34 59
1.274194 -1.201613 -3.225806 29 34 59
1.290323 -1.201613 -3.225806 28 33 58
1.306452 -1.201613 -3.225806 28 33 59
1.322581 -1.201613 -3.225806 31 34 62
1.338710 -1.201613 -3.225806 30 34 61
1.354839 -1.201613 -3.225806 32 35 64
-88.000000 74.500000 200.000000 34 34 58
-89.000000 74.500000 200.000000 33 33 57
-90.000000 74.500000 200.000000 33 31 57
-91.000000 74.500000 200.000000 34 34 58
-92.000000 74.500000 200.000000 31 31 56
-93.000000 74.500000 200.000000 31 30 58
-94.000000 74.500000 200.000000 33 31 62
-95.000000 74.500000 200.000000 30 29 61
-96.000000 74.500000 200.000000 29 29 60
-97.000000 74.500000 200.000000 26 28 57
-98.000000 74.500000 200.000000 27 30 56
-99.000000 74.500000 200.000000 30 32 58
-100.000000 74.500000 200.000000 30 32 58
-101.000000 74.500000 200.000000 28 30 59
-102.000000 74.500000 200.000000 28 30 59
-103.000000 74.500000 200.000000 29 32 58
-104.000000 74.500000 200.000000 28 32 57
-105.000000 74.500000 200.000000 29 33 59
-106.000000 74.500000 200.000000 28 32 60
-107.000000 74.500000 200.000000 27 32 57
-108.000000 74.500000 200.000000 29 32 57
-109.000000 74.500000 200.000000 31 29 55
-110.000000 74.500000 200.000000 31 27 55
-111.000000 74.500000 200.000000 32 29 57
-112.000000 74.500000 200.000000 30 29 58
-113.000000 74.500000 200.000000 32 32 62
-114.000000 74.500000 200.000000 33 34 64
-115.000000 74.500000 200.000000 29 31 61
-116.000000 74.500000 200.000000 33 33 63
-117.000000 74.500000 200.000000 36 35 64
-118.000000 74.500000 200.000000 33 32 59
-119.000000 74.500000 200.000000 24 24 51
-120.000000 74.500000 200.000000 28 30 56
-121.000000 74.500000 200.000000 31 33 60
-122.000000 74.500000 200.000000 31 31 59
-123.000000 74.500000 200.000000 33 34 61
-1.071350 -1.326015 -3.512624 224 210 210
-1.052632 -1.324561 -3.508772 225 211 212
-0.871111 -1.342222 -3.555556 223 210 207
-0.848619 -1.334807 -3.535912 222 210 207
-0.839286 -1.348214 -3.571429 221 211 208
-0.823266 -1.351230 -3.579418 220 211 207
-0.723164 -1.364972 -3.615819 220 211 209
-0.701124 -1.357303 -3.595506 220 211 208
-0.681614 -1.354260 -3.587444 221 210 207
-0.663677 -1.354260 -3.587444 217 209 208
-0.644295 -1.351230 -3.579418 185 180 186
-0.625000 -1.348214 -3.571429 93 92 109
-0.606466 -1.346711 -3.567447 42 45 68
-0.587973 -1.345212 -3.563474 33 39 64
-1.142857 -2.696429 -7.142857 40 47 72
-1.109620 -2.702461 -7.158837 49 54 81
-1.071429 -2.696429 -7.142857 48 52 82
-1.031111 -2.684444 -7.111111 37 42 72
-0.991150 -2.672566 -7.079646 32 38 67
-0.949451 -2.654945 -7.032967 35 40 68
-0.916300 -2.660793 -7.048458 37 42 68
-0.892857 -2.696429 -7.142857 36 41 65
-0.857143 -2.696429 -7.142857 30 35 59
-0.840183 -2.757991 -7.305936 27 30 56
-0.803653 -2.757991 -7.305936 26 29 56
-0.767123 -2.757991 -7.305936 26 31 60
-0.730594 -2.757991 -7.305936 31 37 65
-0.694064 -2.757991 -7.305936 34 39 65
-0.660550 -2.770642 -7.339449 23 26 50
-0.628175 -2.789838 -7.390300 15 17 41
-0.592593 -2.796296 -7.407407 17 20 44
-0.554273 -2.789838 -7.390300 24 27 52
-0.516129 -2.783410 -7.373272 28 32 57
-0.479263 -2.783410 -7.373272 31 34 62
-0.440367 -2.770642 -7.339449 32 34 62
-0.347072 -2.620390 -6.941432 34 35 64
0.074419 -1.872868 -4.961240 37 42 73
0.099225 -1.872868 -4.961240 36 40 70
0.123457 -1.864197 -4.938272 33 38 68
0.147920 -1.861325 -4.930663 30 36 65
0.172573 -1.861325 -4.930663 30 37 65
0.203822 -1.923567 -5.095541 30 38 64
0.229665 -1.926635 -5.103668 27 38 62
0.255183 -1.926635 -5.103668 29 39 62
0.281150 -1.929712 -5.111821 31 38 63
0.306220 -1.926635 -5.103668 34 39 65
0.331210 -1.923567 -5.095541 37 41 69
0.356688 -1.923567 -5.095541 40 45 74
0.382166 -1.923567 -5.095541 40 45 75
0.406995 -1.920509 -5.087440 39 44 74
0.734694 -1.540816 -4.081633 34 40 68
0.753181 -1.536896 -4.071247 33 39 68
0.661290 -1.217742 -3.225806 37 41 66
0.677419 -1.217742 -3.225806 37 40 68
0.693548 -1.217742 -3.225806 34 35 66
0.709677 -1.217742 -3.225806 34 35 65
0.725806 -1.217742 -3.225806 33 36 63
0.741935 -1.217742 -3.225806 31 37 61
0.758065 -1.217742 -3.225806 31 37 60
0.774194 -1.217742 -3.225806 34 39 63
0.790323 -1.217742 -3.225806 37 40 65
0.822581 -1.217742 -3.225806 35 35 62
0.838710 -1.217742 -3.225806 34 35 61
0.854839 -1.217742 -3.225806 34 35 63
0.870968 -1.217742 -3.225806 34 35 65
0.887097 -1.217742 -3.225806 34 36 66
0.903226 -1.217742 -3.225806 34 37 67
0.919355 -1.217742 -3.225806 33 36 66
0.935484 -1.217742 -3.225806 30 34 63
0.951613 -1.217742 -3.225806 31 33 63
0.967742 -1.217742 -3.225806 34 34 65
0.983871 -1.217742 -3.225806 33 35 64
1.000000 -1.217742 -3.225806 34 36 64
1.016129 -1.217742 -3.225806 33 36 63
1.032258 -1.217742 -3.225806 30 33 60
1.048387 -1.217742 -3.225806 29 33 60
1.064516 -1.217742 -3.225806 30 34 62
1.080645 -1.217742 -3.225806 29 35 62
1.096774 -1.217742 -3.225806 30 34 62
1.112903 -1.217742 -3.225806 33 34 64
1.129032 -1.217742 -3.225806 33 33 64
1.145161 -1.217742 -3.225806 34 34 66
1.161290 -1.217742 -3.225806 32 34 64
1.177419 -1.217742 -3.225806 33 34 64
1.193548 -1.217742 -3.225806 33 34 63
1.209677 -1.217742 -3.225806 34 34 63
1.225806 -1.217742 -3.225806 34 35 64
1.241935 -1.217742 -3.225806 33 34 63
1.258065 -1.217742 -3.225806 31 33 62
1.274194 -1.217742 -3.225806 30 33 62
1.290323 -1.217742 -3.225806 29 32 60
1.306452 -1.217742 -3.225806 29 32 60
1.322581 -1.217742 -3.225806 31 33 61
1.338710 -1.217742 -3.225806 32 36 64
1.354839 -1.217742 -3.225806 32 37 66
1.370968 -1.217742 -3.225806 32 36 66
-87.000000 75.500000 200.000000 36 37 63
-88.000000 75.500000 200.000000 36 36 60
-89.000000 75.500000 200.000000 35 33 58
-90.000000 75.500000 200.000000 34 32 58
-91.000000 75.500000 200.000000 34 34 58
-92.000000 75.500000 200.000000 33 32 58
-93.000000 75.500000 200.000000 32 30 59
-94.000000 75.500000 200.000000 31 29 61
-95.000000 75.500000 200.000000 30 29 62
-96.000000 75.500000 200.000000 30 31 63
-97.000000 75.500000 200.000000 29 31 60
-98.000000 75.500000 200.000000 27 31 58
-99.000000 75.500000 200.000000 30 33 58
-100.000000 75.500000 200.000000 31 33 60
-101.000000 75.500000 200.000000 31 32 61
-102.000000 75.500000 200.000000 31 32 61
-103.000000 75.500000 200.000000 29 32 59
-104.000000 75.500000 200.000000 29 32 58
-105.000000 75.500000 200.000000 31 34 62
-106.000000 75.500000 200.000000 27 32 61
-107.000000 75.500000 200.000000 24 29 55
-108.000000 75.500000 200.000000 29 32 57
-109.000000 75.500000 200.000000 33 29 56
-110.000000 75.500000 200.000000 35 27 56
-111.000000 75.500000 200.000000 35 28 58
-112.000000 75.500000 200.000000 33 29 59
-113.000000 75.500000 200.000000 33 32 62
-114.000000 75.500000 200.000000 32 33 64
-115.000000 75.500000 200.000000 30 32 63
-116.000000 75.500000 200.000000 34 34 65
-117.000000 75.500000 200.000000 36 35 64
-118.000000 75.500000 200.000000 31 30 56
-119.000000 75.500000 200.000000 23 24 48
-120.000000 75.500000 200.000000 29 31 56
-121.000000 75.500000 200.000000 32 33 60
-122.000000 75.500000 200.000000 31 31 60
-123.000000 75.500000 200.000000 32 33 62
-1.070175 -1.342105 -3.508772 223 210 209
-1.052632 -1.342105 -3.508772 223 209 210
-1.035088 -1.342105 -3.508772 222 208 209
-1.018661 -1.343578 -3.512624 223 209 209
-0.891862 -1.364548 -3.567447 224 211 208
-0.873051 -1.363029 -3.563474 223 211 208
-0.857143 -1.366071 -3.571429 222 211 208
-0.723982 -1.384615 -3.619910 218 210 208
-0.701124 -1.375281 -3.595506 219 211 208
-0.681614 -1.372197 -3.587444 218 210 208
-0.662934 -1.370661 -3.583427 206 198 202
-0.642857 -1.366071 -3.571429 130 126 137
-0.624303 -1.364548 -3.567447 54 55 74
-0.605791 -1.363029 -3.563474 33 36 61
-0.587973 -1.363029 -3.563474 32 37 63
-1.147982 -2.744395 -7.174888 42 47 73
-1.112108 -2.744395 -7.174888 46 52 79
-1.073825 -2.738255 -7.158837 44 51 81
-1.035714 -2.732143 -7.142857 35 43 72
-1.000000 -2.732143 -7.142857 33 40 69
-0.955752 -2.707965 -7.079646 34 41 71
-0.916300 -2.696035 -7.048458 35 41 70
-0.881057 -2.696035 -7.048458 34 38 66
-0.857143 -2.732143 -7.142857 29 32 59
-0.845977 -2.813793 -7.356322 28 31 58
-0.809195 -2.813793 -7.356322 28 33 61
-0.772414 -2.813793 -7.356322 27 34 63
-0.733945 -2.807339 -7.339449 34 40 67
-0.702079 -2.826790 -7.390300 31 35 60
-0.668213 -2.839907 -7.424594 20 22 46
-0.631090 -2.839907 -7.424594 16 17 42
-0.593967 -2.839907 -7.424594 20 24 49
-0.555556 -2.833333 -7.407407 27 33 58
-0.517321 -2.826790 -7.390300 29 36 61
-0.479263 -2.820276 -7.373272 32 38 64
-0.438356 -2.794521 -7.305936 32 36 64
-0.405530 -2.820276 -7.373272 35 38 66
-0.347072 -2.655098 -6.941432 35 37 66
-0.310345 -2.637931 -6.896552 35 37 66
0.098918 -1.891808 -4.945904 34 42 70
0.122699 -1.877301 -4.907976 33 40 69
0.147239 -1.877301 -4.907976 33 39 68
0.171779 -1.877301 -4.907976 32 37 66
0.204147 -1.952153 -5.103668 31 37 64
0.230032 -1.955272 -5.111821 31 38 64
0.255591 -1.955272 -5.111821 31 39 63
0.281150 -1.955272 -5.111821 33 40 65
0.306709 -1.955272 -5.111821 35 40 67
0.332268 -1.955272 -5.111821 38 42 71
0.357827 -1.955272 -5.111821 37 41 72
0.383387 -1.955272 -5.111821 39 43 74
0.560000 -1.530000 -4.000000 37 42 72
0.577114 -1.522388 -3.980099 35 40 67
0.596273 -1.520497 -3.975155 32 38 61
0.714286 -1.561224 -4.081633 31 36 66
0.732824 -1.557252 -4.071247 31 38 67
0.753181 -1.557252 -4.071247 32 39 67
0.773537 -1.557252 -4.071247 35 42 69
0.661290 -1.233871 -3.225806 36 40 68
0.677419 -1.233871 -3.225806 33 37 66
0.693548 -1.233871 -3.225806 31 34 64
0.709677 -1.233871 -3.225806 34 36 66
0.725806 -1.233871 -3.225806 35 36 65
0.741935 -1.233871 -3.225806 33 34 62
0.758065 -1.233871 -3.225806 34 37 63
0.817021 -1.302128 -3.404255 36 40 66
0.834043 -1.302128 -3.404255 39 42 68
0.868085 -1.302128 -3.404255 34 36 60
0.882291 -1.297985 -3.393425 32 35 59
0.854839 -1.233871 -3.225806 34 37 63
0.870968 -1.233871 -3.225806 36 38 67
0.887097 -1.233871 -3.225806 34 37 67
0.903226 -1.233871 -3.225806 32 34 65
0.919355 -1.233871 -3.225806 31 34 64
0.935484 -1.233871 -3.225806 32 35 64
0.951613 -1.233871 -3.225806 31 31 62
0.967742 -1.233871 -3.225806 32 32 62
0.983871 -1.233871 -3.225806 32 32 61
1.000000 -1.233871 -3.225806 36 36 64
1.016129 -1.233871 -3.225806 33 34 61
1.032258 -1.233871 -3.225806 30 34 60
1.048387 -1.233871 -3.225806 28 33 60
1.064516 -1.233871 -3.225806 28 34 61
1.080645 -1.233871 -3.225806 27 34 63
1.096774 -1.233871 -3.225806 27 33 62
1.112903 -1.233871 -3.225806 30 33 63
1.129032 -1.233871 -3.225806 32 34 63
1.145161 -1.233871 -3.225806 31 33 62
1.161290 -1.233871 -3.225806 29 31 61
1.177419 -1.233871 -3.225806 26 30 60
1.193548 -1.233871 -3.225806 28 33 63
1.209677 -1.233871 -3.225806 30 35 65
1.225806 -1.233871 -3.225806 31 34 63
1.241935 -1.233871 -3.225806 32 34 62
1.258065 -1.233871 -3.225806 31 33 61
1.274194 -1.233871 -3.225806 30 34 61
1.290323 -1.233871 -3.225806 30 35 63
1.306452 -1.233871 -3.225806 29 32 62
1.322581 -1.233871 -3.225806 31 32 62
1.338710 -1.233871 -3.225806 33 36 65
1.354839 -1.233871 -3.225806 31 35 65
1.370968 -1.233871 -3.225806 32 35 64
-1376.000000 1224.000000 3200.000000 34 36 65
-464.000000 408.000000 1066.666626 35 37 64
-704.000000 612.000000 1600.000000 36 36 61
-474.666656 408.000000 1066.666626 34 33 58
-90.000000 76.500000 200.000000 35 33 57
-91.000000 76.500000 200.000000 34 34 58
-92.000000 76.500000 200.000000 34 34 59
-93.000000 76.500000 200.000000 33 34 60
-94.000000 76.500000 200.000000 31 32 61
-95.000000 76.500000 200.000000 30 31 61
-96.000000 76.500000 200.000000 31 33 62
-97.000000 76.500000 200.000000 31 34 60
-98.000000 76.500000 200.000000 31 34 59
-99.000000 76.500000 200.000000 31 34 58
-100.000000 76.500000 200.000000 32 32 58
-101.000000 76.500000 200.000000 35 33 61
-102.000000 76.500000 200.000000 35 34 62
-103.000000 76.500000 200.000000 31 34 62
-104.000000 76.500000 200.000000 27 33 61
-105.000000 76.500000 200.000000 27 31 62
-106.000000 76.500000 200.000000 27 28 61
-107.000000 76.500000 200.000000 28 28 59
-108.000000 76.500000 200.000000 30 29 58
-109.000000 76.500000 200.000000 33 30 59
-251.428574 174.857147 457.142853 36 30 59
-253.714279 174.857147 457.142853 34 29 57
-112.000000 76.500000 200.000000 32 29 58
-113.000000 76.500000 200.000000 33 31 60
-114.000000 76.500000 200.000000 33 32 62
-115.000000 76.500000 200.000000 34 34 64
-116.000000 76.500000 200.000000 35 35 65
-117.000000 76.500000 200.000000 35 35 64
-118.000000 76.500000 200.000000 31 32 60
-119.000000 76.500000 200.000000 24 26 52
-120.000000 76.500000 200.000000 26 28 54
-121.000000 76.500000 200.000000 30 30 57
-122.000000 76.500000 200.000000 30 30 57
-123.000000 76.500000 200.000000 30 32 60
-1.071350 -1.361142 -3.512624 222 209 209
-1.052632 -1.359649 -3.508772 222 209 210
-1.035088 -1.359649 -3.508772 223 209 211
-1.018661 -1.361142 -3.512624 223 209 211
-0.874025 -1.382386 -3.567447 222 211 208
-0.866817 -1.399549 -3.611738 221 211 207
-0.725624 -1.405896 -3.628118 218 208 206
-0.705085 -1.401130 -3.615819 218 209 208
-0.683146 -1.393258 -3.595506 214 206 207
-0.665169 -1.393258 -3.595506 165 159 167
-0.645017 -1.388578 -3.583427 77 75 89
-0.625000 -1.383929 -3.571429 40 42 63
-0.606466 -1.382386 -3.567447 29 34 59
-0.588629 -1.382386 -3.567447 34 39 64
-1.153153 -2.792793 -7.207207 44 48 74
-1.129840 -2.824601 -7.289294 45 51 78
-1.081081 -2.792793 -7.207207 43 51 80
-1.038031 -2.774049 -7.158837 36 44 72
-1.000000 -2.767857 -7.142857 32 40 69
-0.951542 -2.731277 -7.048458 32 39 70
-0.497608 -1.483254 -3.827751 36 42 72
-0.477897 -1.481481 -3.823178 34 38 66
-0.459330 -1.483254 -3.827751 29 32 59
-0.845977 -2.850575 -7.356322 29 33 61
-0.809195 -2.850575 -7.356322 27 33 61
-0.772414 -2.850575 -7.356322 30 36 64
-0.735632 -2.850575 -7.356322 35 41 67
-0.702079 -2.863741 -7.390300 26 31 54
-0.629630 -2.870370 -7.407407 16 19 44
-0.591224 -2.863741 -7.390300 22 26 52
-0.554273 -2.863741 -7.390300 29 36 62
-0.516129 -2.857143 -7.373272 30 39 63
-0.479263 -2.857143 -7.373272 30 37 63
-0.437358 -2.824601 -7.289294 29 35 63
-0.386813 -2.725275 -7.032967 32 36 65
-0.344828 -2.672414 -6.896552 34 37 66
-0.307692 -2.649573 -6.837607 37 38 68
0.098160 -1.901840 -4.907976 32 40 68
0.122511 -1.898928 -4.900459 31 38 67
0.146789 -1.896024 -4.892966 32 38 67
0.171254 -1.896024 -4.892966 33 38 67
0.196018 -1.898928 -4.900459 33 38 66
0.229665 -1.977672 -5.103668 34 39 66
0.255183 -1.977672 -5.103668 34 40 66
0.281600 -1.984000 -5.120000 35 41 67
0.307200 -1.984000 -5.120000 35 41 69
0.332800 -1.984000 -5.120000 37 42 72
0.358400 -1.984000 -5.120000 38 42 74
0.501253 -1.553885 -4.010025 36 40 72
0.520651 -1.551940 -4.005006 37 40 75
0.539326 -1.548065 -3.995006 35 40 74
0.557214 -1.542289 -3.980099 33 39 70
0.576398 -1.540373 -3.975155 34 40 68
0.596273 -1.540373 -3.975155 32 37 62
0.616915 -1.542289 -3.980099 29 34 58
0.693878 -1.581633 -4.081633 31 34 63
0.714286 -1.581633 -4.081633 31 35 65
0.732824 -1.577608 -4.071247 30 36 65
0.753181 -1.577608 -4.071247 29 36 64
0.773537 -1.577608 -4.071247 34 41 67
0.794904 -1.579618 -4.076433 35 39 67
0.693548 -1.250000 -3.225806 30 35 64
0.709677 -1.250000 -3.225806 33 36 65
0.725806 -1.250000 -3.225806 37 37 67
0.741935 -1.250000 -3.225806 38 37 67
0.806002 -1.329046 -3.429796 36 38 66
0.823151 -1.329046 -3.429796 35 39 66
0.840300 -1.329046 -3.429796 36 40 66
0.858369 -1.330472 -3.433476 35 38 64
1.081633 -1.581633 -4.081633 33 36 61
1.100637 -1.579618 -4.076433 34 37 64
1.122449 -1.581633 -4.081633 31 35 64
0.903226 -1.250000 -3.225806 30 34 63
0.919355 -1.250000 -3.225806 30 35 63
0.935484 -1.250000 -3.225806 30 35 62
0.951613 -1.250000 -3.225806 30 32 60
0.967742 -1.250000 -3.225806 33 33 61
0.983871 -1.250000 -3.225806 35 35 62
1.000000 -1.250000 -3.225806 36 37 62
1.016129 -1.250000 -3.225806 33 35 61
1.032258 -1.250000 -3.225806 32 36 61
1.048387 -1.250000 -3.225806 31 36 62
1.064516 -1.250000 -3.225806 30 37 63
1.080645 -1.250000 -3.225806 28 36 64
1.096774 -1.250000 -3.225806 27 34 62
1.112903 -1.250000 -3.225806 28 33 60
1.129032 -1.250000 -3.225806 31 34 60
1.145161 -1.250000 -3.225806 30 32 59
1.161290 -1.250000 -3.225806 29 32 59
1.177419 -1.250000 -3.225806 28 33 61
1.193548 -1.250000 -3.225806 29 36 64
1.209677 -1.250000 -3.225806 28 35 64
1.225806 -1.250000 -3.225806 30 34 62
1.241935 -1.250000 -3.225806 32 35 60
1.258065 -1.250000 -3.225806 32 35 59
1.274194 -1.250000 -3.225806 30 35 61
1.290323 -1.250000 -3.225806 29 36 63
1.306452 -1.250000 -3.225806 29 33 62
1.322581 -1.250000 -3.225806 32 32 62
1.338710 -1.250000 -3.225806 34 36 67
1.354839 -1.250000 -3.225806 33 36 67
1.370968 -1.250000 -3.225806 33 36 66
-1376.000000 1240.000000 3200.000000 34 37 66
-1392.000000 1240.000000 3200.000000 33 35 63
inf -inf -inf 33 34 60
inf -inf -inf 34 34 58
-93.000000 77.500000 200.000000 34 37 61
-94.000000 77.500000 200.000000 31 35 62
-95.000000 77.500000 200.000000 29 34 61
-96.000000 77.500000 200.000000 29 34 60
-97.000000 77.500000 200.000000 28 33 58
-98.000000 77.500000 200.000000 29 34 58
-99.000000 77.500000 200.000000 30 35 59
-100.000000 77.500000 200.000000 31 32 58
-230.857147 177.142853 457.142853 35 32 60
-272.000000 206.666672 533.333313 33 31 60
-329.600006 248.000000 640.000000 30 32 61
-277.333344 206.666672 533.333313 26 33 62
-105.000000 77.500000 200.000000 25 29 61
-106.000000 77.500000 200.000000 27 27 61
-107.000000 77.500000 200.000000 30 28 61
-345.600006 248.000000 640.000000 30 28 60
-436.000000 310.000000 800.000000 33 30 60
-440.000000 310.000000 800.000000 34 30 59
-355.200012 248.000000 640.000000 33 30 57
-256.000000 177.142853 457.142853 33 31 59
-113.000000 77.500000 200.000000 34 32 60
-114.000000 77.500000 200.000000 34 33 62
-115.000000 77.500000 200.000000 35 35 62
-116.000000 77.500000 200.000000 33 34 61
-117.000000 77.500000 200.000000 32 35 62
-118.000000 77.500000 200.000000 30 34 61
-119.000000 77.500000 200.000000 25 29 55
-120.000000 77.500000 200.000000 24 28 53
-121.000000 77.500000 200.000000 30 32 57
-122.000000 77.500000 200.000000 32 34 58
-123.000000 77.500000 200.000000 29 32 58
-1.073707 -1.381738 -3.520352 223 210 210
-1.052632 -1.377193 -3.508772 222 209 211
-1.035088 -1.377193 -3.508772 223 210 212
-1.017544 -1.377193 -3.508772 225 211 213
-0.730594 -1.433790 -3.652968 220 208 207
-0.707483 -1.424036 -3.628118 217 207 210
-0.687006 -1.419209 -3.615819 196 188 196
-0.667418 -1.416009 -3.607666 109 104 118
-0.645740 -1.408072 -3.587444 51 50 68
-0.626398 -1.404922 -3.579418 33 36 59
-0.606466 -1.400223 -3.567447 29 35 60
-0.588629 -1.400223 -3.567447 36 41 67
-0.616867 -1.513253 -3.855422 45 50 75
-1.129840 -2.861048 -7.289294 46 53 78
-1.081081 -2.828829 -7.207207 42 50 76
-0.557692 -1.509615 -3.846154 37 44 71
-0.538462 -1.509615 -3.846154 34 41 70
-0.517365 -1.504192 -3.832335 33 41 71
-0.496420 -1.498807 -3.818616 36 42 72
-0.477327 -1.498807 -3.818616 35 38 67
-0.459330 -1.502392 -3.827751 32 34 61
-0.440191 -1.502392 -3.827751 32 35 63
-0.424096 -1.513253 -3.855422 30 35 63
-0.775982 -2.900693 -7.390300 33 39 67
-0.739030 -2.900693 -7.390300 35 41 66
-0.554273 -2.900693 -7.390300 29 36 62
-0.517321 -2.900693 -7.390300 30 37 62
-0.481481 -2.907408 -7.407407 28 35 63
-0.386813 -2.760440 -7.032967 33 37 67
-0.341880 -2.683761 -6.837607 35 38 67
-0.305732 -2.666667 -6.794055 36 39 68
-0.272340 -2.672340 -6.808511 34 37 66
-0.073846 -1.932308 -4.923077 36 43 69
-0.049005 -1.923430 -4.900459 36 44 69
-0.024502 -1.923430 -4.900459 34 43 68
0.098160 -1.926380 -4.907976 33 40 67
0.122324 -1.920489 -4.892966 32 38 66
0.146789 -1.920489 -4.892966 34 39 68
0.171254 -1.920489 -4.892966 33 38 67
0.195719 -1.920489 -4.892966 34 39 68
0.220521 -1.923430 -4.900459 36 42 70
0.255183 -2.003190 -5.103668 35 41 68
0.281600 -2.009600 -5.120000 35 41 69
0.307200 -2.009600 -5.120000 36 42 71
0.332800 -2.009600 -5.120000 38 43 74
0.358974 -2.012820 -5.128205 40 44 77
0.484848 -1.585859 -4.040404 36 39 68
0.501882 -1.575910 -4.015057 37 40 72
0.520000 -1.570000 -4.000000 38 42 76
0.538653 -1.566085 -3.990025 35 41 73
0.557214 -1.562189 -3.980099 34 40 70
0.577114 -1.562189 -3.980099 34 39 68
0.597015 -1.562189 -3.980099 32 38 65
0.619226 -1.568040 -3.995006 29 33 60
0.653895 -1.604087 -4.086845 29 32 59
0.674330 -1.604087 -4.086845 30 32 60
0.693878 -1.602041 -4.081633 31 33 61
0.714286 -1.602041 -4.081633 33 35 64
0.734694 -1.602041 -4.081633 32 36 64
0.754140 -1.600000 -4.076433 30 36 63
0.774522 -1.600000 -4.076433 33 38 65
0.794904 -1.600000 -4.076433 33 37 65
0.872727 -1.631169 -4.155844 32 36 66
0.879795 -1.606138 -4.092072 32 36 65
0.900256 -1.606138 -4.092072 33 36 64
0.920716 -1.606138 -4.092072 37 37 66
0.827586 -1.353448 -3.448276 34 39 66
0.840300 -1.346195 -3.429796 33 38 65
0.858369 -1.347639 -3.433476 34 37 64
0.880259 -1.354908 -3.451996 34 34 59
1.089974 -1.614396 -4.113111 36 37 63
1.107692 -1.610256 -4.102564 37 39 66
1.131105 -1.614396 -4.113111 34 38 66
1.151671 -1.614396 -4.113111 33 39 67
0.951613 -1.266129 -3.225806 30 34 60
0.967742 -1.266129 -3.225806 32 34 60
0.983871 -1.266129 -3.225806 34 36 61
1.000000 -1.266129 -3.225806 35 36 61
1.016129 -1.266129 -3.225806 33 35 60
1.032258 -1.266129 -3.225806 32 35 60
1.048387 -1.266129 -3.225806 31 35 62
1.064516 -1.266129 -3.225806 33 38 65
1.090539 -1.277721 -3.255341 30 37 63
1.106816 -1.277721 -3.255341 28 35 61
1.112903 -1.266129 -3.225806 30 35 60
1.129032 -1.266129 -3.225806 30 33 58
1.145161 -1.266129 -3.225806 30 32 57
1.161290 -1.266129 -3.225806 32 35 59
1.177419 -1.266129 -3.225806 30 35 60
1.193548 -1.266129 -3.225806 30 36 61
1.209677 -1.266129 -3.225806 30 36 63
1.225806 -1.266129 -3.225806 30 35 61
1.241935 -1.266129 -3.225806 31 34 58
1.258065 -1.266129 -3.225806 31 36 58
1.274194 -1.266129 -3.225806 31 38 61
1.290323 -1.266129 -3.225806 29 36 62
1.306452 -1.266129 -3.225806 30 34 61
1.322581 -1.266129 -3.225806 34 35 63
1.338710 -1.266129 -3.225806 34 36 67
1.354839 -1.266129 -3.225806 32 36 68
1.370968 -1.266129 -3.225806 33 36 68
-1376.000000 1256.000000 3200.000000 32 36 67
-1392.000000 1256.000000 3200.000000 31 34 64
inf -inf -inf 31 33 61
inf -inf -inf 33 34 59
-93.000000 78.500000 200.000000 34 39 62
-94.000000 78.500000 200.000000 30 37 62
-95.000000 78.500000 200.000000 28 35 61
-96.000000 78.500000 200.000000 26 33 59
-97.000000 78.500000 200.000000 26 32 59
-98.000000 78.500000 200.000000 27 33 59
-226.285721 179.428574 457.142853 27 34 60
-266.666656 209.333328 533.333313 30 34 61
-323.200012 251.199997 640.000000 36 33 62
-326.399994 251.199997 640.000000 35 31 61
-329.600006 251.199997 640.000000 32 33 62
-277.333344 209.333328 533.333313 29 33 62
-280.000000 209.333328 533.333313 26 30 61
-242.285721 179.428574 457.142853 26 28 60
-342.399994 251.199997 640.000000 30 29 62
-432.000000 314.000000 800.000000 31 30 62
-436.000000 314.000000 800.000000 32 30 60
-586.666687 418.666656 1066.666626 34 31 60
-444.000000 314.000000 800.000000 32 30 57
-298.666656 209.333328 533.333313 31 30 57
-113.000000 78.500000 200.000000 33 32 59
-114.000000 78.500000 200.000000 34 33 61
-115.000000 78.500000 200.000000 33 34 60
-116.000000 78.500000 200.000000 33 36 60
-117.000000 78.500000 200.000000 32 36 61
-118.000000 78.500000 200.000000 31 37 61
-119.000000 78.500000 200.000000 28 33 57
-120.000000 78.500000 200.000000 23 28 52
-121.000000 78.500000 200.000000 30 34 57
-122.000000 78.500000 200.000000 33 36 59
-123.000000 78.500000 200.000000 29 32 57
-0.750293 -1.491207 -3.751465 220 207 208
-0.712329 -1.452055 -3.652968 210 201 209
-0.689342 -1.442177 -3.628118 151 147 161
-0.668927 -1.437288 -3.615819 67 66 85
-0.647919 -1.430821 -3.599550 43 44 66
-0.627803 -1.426009 -3.587444 32 36 60
-0.608501 -1.422819 -3.579418 28 35 60
-0.634615 -1.528846 -3.846154 35 41 66
-0.616867 -1.532530 -3.855422 42 48 73
-0.597590 -1.532530 -3.855422 45 51 76
-0.576923 -1.528846 -3.846154 44 51 76
-0.557692 -1.528846 -3.846154 40 46 72
-0.538462 -1.528846 -3.846154 37 44 72
-0.517365 -1.523353 -3.832335 34 41 70
-0.497013 -1.519713 -3.823178 34 39 69
-0.477897 -1.519713 -3.823178 35 38 66
-0.458781 -1.519713 -3.823178 31 33 60
-0.440191 -1.521531 -3.827751 31 34 61
-0.424096 -1.532530 -3.855422 30 34 62
-0.406780 -1.539952 -3.874092 34 38 66
-0.518519 -2.944444 -7.407407 32 38 64
-0.341880 -2.717949 -6.837607 36 39 69
-0.305732 -2.700637 -6.794055 34 37 67
-0.270042 -2.683544 -6.751055 32 36 64
-0.107744 -2.141414 -5.387206 38 44 71
-0.073620 -1.950920 -4.907976 34 41 67
-0.048855 -1.941985 -4.885496 34 41 67
-0.024427 -1.941985 -4.885496 35 42 69
0.000000 -1.944954 -4.892966 34 42 70
0.024502 -1.947933 -4.900459 33 41 71
0.122324 -1.944954 -4.892966 33 38 66
0.146789 -1.944954 -4.892966 36 41 69
0.171254 -1.944954 -4.892966 34 39 68
0.195719 -1.944954 -4.892966 34 39 69
0.220521 -1.947933 -4.900459 35 41 69
0.251177 -1.996860 -5.023548 35 41 69
0.280702 -2.028708 -5.103668 35 41 69
0.307200 -2.035200 -5.120000 36 42 71
0.332800 -2.035200 -5.120000 37 42 73
0.358974 -2.038461 -5.128205 39 43 76
0.484848 -1.606061 -4.040404 36 39 67
0.500626 -1.591990 -4.005006 35 40 70
0.519351 -1.588015 -3.995006 35 41 73
0.538653 -1.586035 -3.990025 34 41 71
0.558603 -1.586035 -3.990025 34 41 70
0.578554 -1.586035 -3.990025 33 39 68
0.598504 -1.586035 -3.990025 33 38 66
0.620000 -1.590000 -4.000000 32 35 64
0.652229 -1.620382 -4.076433 30 33 61
0.672611 -1.620382 -4.076433 32 34 61
0.692994 -1.620382 -4.076433 34 35 62
0.713376 -1.620382 -4.076433 35 37 63
0.734694 -1.622449 -4.081633 34 37 63
0.754140 -1.620382 -4.076433 36 41 67
0.773537 -1.618321 -4.071247 35 39 65
0.793893 -1.618321 -4.071247 35 38 65
0.825806 -1.641290 -4.129032 37 39 67
0.846452 -1.641290 -4.129032 35 38 67
0.872727 -1.651948 -4.155844 34 39 68
0.892348 -1.649805 -4.150454 33 38 65
0.915475 -1.654096 -4.161248 35 38 65
0.832972 -1.379610 -3.470716 33 39 65
0.845739 -1.372168 -3.451996 31 36 63
0.875274 -1.391685 -3.501094 31 34 61
1.110540 -1.634961 -4.113111 35 37 65
1.131105 -1.634961 -4.113111 33 37 66
1.151671 -1.634961 -4.113111 32 37 65
1.172237 -1.634961 -4.113111 30 37 65
0.967742 -1.282258 -3.225806 32 35 60
0.983871 -1.282258 -3.225806 32 34 60
1.000000 -1.282258 -3.225806 33 35 62
1.016129 -1.282258 -3.225806 33 35 62
1.032258 -1.282258 -3.225806 33 35 63
1.048387 -1.282258 -3.225806 33 35 63
1.064516 -1.282258 -3.225806 32 34 63
1.090539 -1.293998 -3.255341 27 33 59
1.150106 -1.344609 -3.382664 27 34 58
1.123093 -1.293998 -3.255341 28 33 58
1.139369 -1.293998 -3.255341 28 32 55
1.145161 -1.282258 -3.225806 31 34 57
1.161290 -1.282258 -3.225806 31 34 58
1.177419 -1.282258 -3.225806 31 34 58
1.193548 -1.282258 -3.225806 30 34 59
1.209677 -1.282258 -3.225806 29 33 60
1.225806 -1.282258 -3.225806 29 34 60
1.241935 -1.282258 -3.225806 29 34 57
1.258065 -1.282258 -3.225806 30 36 59
1.274194 -1.282258 -3.225806 32 38 63
1.290323 -1.282258 -3.225806 31 36 63
1.306452 -1.282258 -3.225806 30 34 61
1.322581 -1.282258 -3.225806 34 35 63
1.338710 -1.282258 -3.225806 35 37 68
1.354839 -1.282258 -3.225806 33 36 69
1.370968 -1.282258 -3.225806 32 36 69
1.387097 -1.282258 -3.225806 32 37 68
-1392.000000 1272.000000 3200.000000 30 35 65
-1408.000000 1272.000000 3200.000000 30 34 62
-1424.000000 1272.000000 3200.000000 30 33 59
-1440.000000 1272.000000 3200.000000 32 34 58
-294.399994 254.399994 640.000000 32 37 57
-297.600006 254.399994 640.000000 34 39 62
-214.857147 181.714279 457.142853 31 38 62
-95.000000 79.500000 200.000000 28 35 61
-96.000000 79.500000 200.000000 26 33 60
-97.000000 79.500000 200.000000 27 33 60
-313.600006 254.399994 640.000000 27 32 60
-264.000000 212.000000 533.333313 26 34 61
-266.666656 212.000000 533.333313 26 31 60
-269.333344 212.000000 533.333313 33 33 62
-326.399994 254.399994 640.000000 36 32 62
-274.666656 212.000000 533.333313 32 31 60
-277.333344 212.000000 533.333313 28 30 59
-240.000000 181.714279 457.142853 28 31 61
-282.666656 212.000000 533.333313 27 29 60
-342.399994 254.399994 640.000000 28 29 62
-345.600006 254.399994 640.000000 30 30 61
-436.000000 318.000000 800.000000 29 28 58
-586.666687 424.000000 1066.666626 33 31 59
-355.200012 254.399994 640.000000 31 29 55
-298.666656 212.000000 533.333313 32 31 56
-113.000000 79.500000 200.000000 37 37 62
-114.000000 79.500000 200.000000 34 34 60
-115.000000 79.500000 200.000000 31 32 57
-116.000000 79.500000 200.000000 33 35 60
-117.000000 79.500000 200.000000 32 35 60
-118.000000 79.500000 200.000000 32 36 61
-119.000000 79.500000 200.000000 29 34 58
-120.000000 79.500000 200.000000 24 27 52
-121.000000 79.500000 200.000000 30 33 56
-122.000000 79.500000 200.000000 34 35 59
-123.000000 79.500000 200.000000 33 35 58
-3.200000 -6.282927 -15.609756 221 208 206
-3.121951 -6.282927 -15.609756 215 205 208
-0.721387 -1.489017 -3.699422 174 169 181
-0.690909 -1.463636 -3.636364 90 91 110
-0.668927 -1.455367 -3.615819 51 53 77
-0.645740 -1.443946 -3.587444 43 45 69
-0.627803 -1.443946 -3.587444 32 36 60
-0.597590 -1.551807 -3.855422 46 52 76
-0.576923 -1.548077 -3.846154 45 51 75
-0.557692 -1.548077 -3.846154 39 45 70
-0.538462 -1.548077 -3.846154 36 42 69
-0.517365 -1.542515 -3.832335 35 41 69
-0.497608 -1.540670 -3.827751 35 39 68
-0.478469 -1.540670 -3.827751 36 38 65
-0.459330 -1.540670 -3.827751 34 35 60
-0.440191 -1.540670 -3.827751 32 35 60
-0.424096 -1.551807 -3.855422 31 35 61
-0.341151 -2.746269 -6.823028 36 40 69
-0.303797 -2.717299 -6.751055 31 35 64
-0.268344 -2.700210 -6.708595 32 37 65
-0.234801 -2.700210 -6.708595 34 40 67
-0.202532 -2.717299 -6.751055 33 41 67
-0.168776 -2.717299 -6.751055 36 42 69
-0.099688 -2.006231 -4.984424 37 43 70
-0.073620 -1.975460 -4.907976 36 42 70
-0.048855 -1.966412 -4.885496 35 41 69
-0.024390 -1.963415 -4.878049 37 43 71
0.000000 -1.963415 -4.878049 37 44 73
0.155340 -3.126214 -7.766990 36 40 65
0.193237 -3.111111 -7.729469 35 40 66
0.146789 -1.969419 -4.892966 38 43 70
0.171254 -1.969419 -4.892966 36 41 69
0.196018 -1.972435 -4.900459 34 39 68
0.220521 -1.972435 -4.900459 35 41 69
0.250391 -2.015650 -5.007825 36 42 70
0.277165 -2.028347 -5.039370 35 41 69
0.304762 -2.044445 -5.079365 36 41 71
0.331210 -2.050955 -5.095541 37 42 73
0.357257 -2.054226 -5.103668 39 43 75
0.520000 -1.610000 -4.000000 33 41 70
0.539326 -1.607990 -3.995006 35 42 70
0.559301 -1.607990 -3.995006 35 41 68
0.579276 -1.607990 -3.995006 34 39 67
0.600000 -1.610000 -4.000000 35 39 66
0.631847 -1.640764 -4.076433 33 36 64
0.655570 -1.649168 -4.097311 32 35 61
0.673469 -1.642857 -4.081633 33 35 60
0.695652 -1.647059 -4.092072 34 35 60
0.714286 -1.642857 -4.081633 36 37 61
0.734694 -1.642857 -4.081633 35 37 61
0.753181 -1.638677 -4.071247 37 41 65
0.773537 -1.638677 -4.071247 36 40 65
0.793893 -1.638677 -4.071247 37 39 65
0.873862 -1.674902 -4.161248 34 38 65
0.893506 -1.672727 -4.155844 33 39 64
0.915475 -1.674902 -4.161248 35 39 64
0.842105 -1.412281 -3.508772 31 37 62
0.857768 -1.409190 -3.501094 30 34 60
0.892857 -1.437500 -3.571429 30 33 60
1.116279 -1.664083 -4.134367 34 36 65
1.135484 -1.661935 -4.129032 35 36 66
1.150192 -1.653402 -4.107831 35 37 67
1.167734 -1.649168 -4.097311 34 36 66
1.188220 -1.649168 -4.097311 32 36 65
0.967742 -1.298387 -3.225806 34 37 64
0.983871 -1.298387 -3.225806 32 34 62
1.000000 -1.298387 -3.225806 31 32 61
1.016129 -1.298387 -3.225806 34 35 64
1.032258 -1.298387 -3.225806 35 35 65
1.048387 -1.298387 -3.225806 35 34 65
1.064516 -1.298387 -3.225806 32 32 62
1.080645 -1.298387 -3.225806 30 33 60
1.106816 -1.310275 -3.255341 30 35 60
1.167019 -1.361522 -3.382664 29 33 58
1.161290 -1.298387 -3.225806 32 34 59
1.177419 -1.298387 -3.225806 32 34 59
1.193548 -1.298387 -3.225806 29 31 57
1.209677 -1.298387 -3.225806 27 29 57
1.225806 -1.298387 -3.225806 30 34 61
1.241935 -1.298387 -3.225806 30 35 60
1.258065 -1.298387 -3.225806 29 35 59
1.274194 -1.298387 -3.225806 32 37 63
1.290323 -1.298387 -3.225806 33 36 65
1.306452 -1.298387 -3.225806 33 34 63
1.322581 -1.298387 -3.225806 33 33 62
1.338710 -1.298387 -3.225806 35 36 66
1.354839 -1.298387 -3.225806 31 34 66
1.370968 -1.298387 -3.225806 32 36 68
1.387097 -1.298387 -3.225806 32 37 68
1.403226 -1.298387 -3.225806 32 37 67
-1408.000000 1288.000000 3200.000000 31 36 64
-1424.000000 1288.000000 3200.000000 32 35 61
inf -inf -inf 34 36 60
11.286821 -9.984496 -24.806202 35 36 57
11.590551 -10.141732 -25.196850 33 34 55
-297.600006 257.600006 640.000000 33 35 58
-214.857147 184.000000 457.142853 33 37 61
-304.000000 257.600006 640.000000 29 34 60
-256.000000 214.666672 533.333313 29 33 61
-517.333313 429.333344 1066.666626 29 32 61
-784.000000 644.000000 1600.000000 30 32 61
-396.000000 322.000000 800.000000 27 33 62
-266.666656 214.666672 533.333313 26 31 60
-269.333344 214.666672 533.333313 32 33 62
-102.000000 80.500000 200.000000 34 32 60
-103.000000 80.500000 200.000000 35 34 61
-104.000000 80.500000 200.000000 33 33 60
-105.000000 80.500000 200.000000 31 33 61
-242.285721 184.000000 457.142853 29 31 60
-285.333344 214.666672 533.333313 27 29 59
-345.600006 257.600006 640.000000 28 29 60
-290.666656 214.666672 533.333313 29 29 57
-293.333344 214.666672 533.333313 32 31 57
-296.000000 214.666672 533.333313 33 31 56
-298.666656 214.666672 533.333313 34 33 58
-113.000000 80.500000 200.000000 36 36 60
-114.000000 80.500000 200.000000 34 35 60
-115.000000 80.500000 200.000000 33 32 59
-116.000000 80.500000 200.000000 36 34 62
-117.000000 80.500000 200.000000 34 35 62
-118.000000 80.500000 200.000000 34 35 63
-119.000000 80.500000 200.000000 31 33 60
-120.000000 80.500000 200.000000 26 27 53
-121.000000 80.500000 200.000000 27 26 53
-122.000000 80.500000 200.000000 33 32 57
-123.000000 80.500000 200.000000 33 33 56
-3.640212 -6.899471 -16.931217 220 208 207
-3.555556 -6.899471 -16.931217 219 207 205
-3.231527 -6.423645 -15.763547 219 206 206
-3.121951 -6.360976 -15.609756 191 183 189
-2.985646 -6.239234 -15.311005 108 106 122
-0.694064 -1.488585 -3.652968 55 59 82
-0.665917 -1.466817 -3.599550 46 50 76
-0.642140 -1.453735 -3.567447 45 48 73
-0.576923 -1.567308 -3.846154 44 48 71
-0.557692 -1.567308 -3.846154 40 44 68
-0.538462 -1.567308 -3.846154 38 44 69
-0.517986 -1.563549 -3.836931 40 46 72
-0.497608 -1.559809 -3.827751 41 45 71
-0.478469 -1.559809 -3.827751 38 40 65
-0.458781 -1.557945 -3.823178 36 37 60
-0.439665 -1.557945 -3.823178 35 36 60
-0.382609 -2.834783 -6.956522 36 41 69
-0.341151 -2.780384 -6.823028 35 39 68
-0.303158 -2.745263 -6.736842 32 36 64
-0.267782 -2.728034 -6.694561 33 39 66
-0.234310 -2.728034 -6.694561 35 42 68
-0.201258 -2.733753 -6.708595 35 43 69
-0.168776 -2.751055 -6.751055 37 44 70
-0.099688 -2.031153 -4.984424 37 43 69
-0.073846 -2.006154 -4.923077 35 42 68
-0.048855 -1.990840 -4.885496 33 40 67
-0.024390 -1.987805 -4.878049 34 40 68
0.000000 -1.987805 -4.878049 37 44 73
0.024390 -1.987805 -4.878049 37 43 72
0.077670 -3.165049 -7.766990 34 40 69
0.116788 -3.172749 -7.785888 36 40 65
0.155340 -3.165049 -7.766990 37 40 64
0.193705 -3.157385 -7.748184 35 39 64
0.232446 -3.157385 -7.748184 36 41 67
0.270531 -3.149758 -7.729469 35 41 67
0.196319 -2.000000 -4.907976 33 39 66
0.225352 -2.040689 -5.007825 35 40 67
0.251177 -2.047096 -5.023548 37 42 69
0.277165 -2.053543 -5.039370 36 42 70
0.304762 -2.069841 -5.079365 35 42 70
0.331210 -2.076433 -5.095541 38 43 72
0.357257 -2.079745 -5.103668 40 44 74
0.533333 -2.897778 -7.111111 41 46 76
0.570156 -2.904232 -7.126949 40 45 74
0.607143 -2.910714 -7.142857 36 42 69
0.645740 -2.923767 -7.174888 34 41 67
0.681614 -2.923767 -7.174888 32 38 65
0.716113 -1.667519 -4.092072 36 38 59
0.736573 -1.667519 -4.092072 35 38 60
0.753181 -1.659033 -4.071247 35 40 62
0.773537 -1.659033 -4.071247 35 39 62
0.894668 -1.695709 -4.161248 31 38 60
0.915475 -1.695709 -4.161248 33 40 63
0.841163 -1.458613 -3.579418 32 38 61
0.850498 -1.444075 -3.543743 30 36 60
0.875000 -1.455357 -3.571429 31 35 59
0.898876 -1.465169 -3.595506 34 36 61
0.917885 -1.466817 -3.599550 34 38 64
0.946530 -1.483504 -3.640501 36 40 67
0.974713 -1.498851 -3.678161 37 39 67
1.116279 -1.684754 -4.134367 38 39 67
1.129653 -1.673941 -4.107831 38 38 67
1.147247 -1.669654 -4.097311 38 38 67
1.166240 -1.667519 -4.092072 38 38 66
1.188220 -1.669654 -4.097311 35 36 64
0.983871 -1.314516 -3.225806 34 35 64
1.000000 -1.314516 -3.225806 30 30 60
1.016129 -1.314516 -3.225806 33 33 62
1.032258 -1.314516 -3.225806 35 34 64
1.048387 -1.314516 -3.225806 36 34 64
1.064516 -1.314516 -3.225806 36 32 62
1.080645 -1.314516 -3.225806 32 32 59
1.096774 -1.314516 -3.225806 32 34 59
1.171975 -1.384289 -3.397027 32 34 59
1.177419 -1.314516 -3.225806 31 33 59
1.193548 -1.314516 -3.225806 30 32 59
1.209677 -1.314516 -3.225806 31 33 61
1.225806 -1.314516 -3.225806 31 34 61
1.241935 -1.314516 -3.225806 29 36 60
1.258065 -1.314516 -3.225806 29 36 60
1.274194 -1.314516 -3.225806 33 37 64
1.290323 -1.314516 -3.225806 35 36 65
1.306452 -1.314516 -3.225806 36 33 64
1.322581 -1.314516 -3.225806 36 34 63
